1983.882568 974.510681 50.709572 
1984.138550 974.583679 50.399071 
1983.992554 973.783203 50.385071 
1984.027466 973.658203 50.206070 
1984.891968 975.846191 51.121071 
1985.191040 976.880188 50.180069 
1984.518066 973.603210 50.850071 
1984.052490 974.832703 50.712570 
1986.157959 975.525208 51.034069 
1985.380005 976.970215 50.044071 
1984.625000 973.473206 50.739071 
1984.856079 974.448181 51.217072 
1985.790039 975.145203 51.049068 
1984.453979 973.884216 51.088070 
1984.284058 973.881226 51.009071 
1983.893555 974.673706 50.305069 
1984.001465 973.948181 50.879570 
1984.691040 975.683228 49.957069 
1984.981079 976.518188 50.130070 
1984.150513 974.875671 50.123070 
1985.354980 974.768188 51.000069 
1985.036011 976.460205 50.708069 
1984.598022 973.667175 49.936069 
1984.223511 973.591187 50.085072 
1984.922974 976.169189 49.961071 
1984.763062 975.155212 51.069069 
1983.842529 974.573730 50.343071 
1985.432007 976.945190 50.663071 
1985.713013 977.321228 50.308071 
1984.789063 973.383179 50.474072 
1984.629028 975.796204 49.958069 
1983.875488 974.690674 49.794071 
1984.416992 975.551208 50.620071 
1985.645996 974.639221 50.760071 
1984.692017 976.009216 50.594070 
1985.113037 976.640198 50.372070 
1984.382080 973.996216 51.166069 
1984.610962 973.722229 51.020069 
1984.744995 975.050171 51.226070 
1984.137573 974.270691 49.928070 
1984.682007 974.344177 51.210072 
1983.954468 974.123718 50.982571 
1984.685059 975.886230 49.976070 
1983.993530 973.883179 50.803570 
1983.821533 974.599670 49.788071 
1984.233521 975.233704 50.024071 
1985.031006 976.723206 50.270069 
1984.795044 975.720215 51.081070 
1985.082031 976.592224 50.211071 
1984.165527 974.350708 51.177570 
1984.894043 976.292175 50.649071 
1984.630981 975.920227 50.600071 
1983.958496 974.744690 49.793072 
1983.674561 974.234680 50.330070 
1985.550049 977.037170 50.239071 
1983.954468 974.474670 50.862572 
1985.115967 973.526184 49.905071 
1985.028076 973.663208 49.847069 
1983.819580 974.540710 50.248070 
1984.971069 976.530212 50.255070 
1984.265015 973.601196 50.665070 
1984.007568 974.509705 50.377071 
1984.837036 976.239197 50.848068 
1984.515015 975.784180 50.376068 
1984.677979 974.765198 51.227070 
1984.368042 975.495178 50.233070 
1985.190063 973.899170 49.848068 
1984.778076 973.322205 50.109070 
1984.433960 975.491211 50.716068 
1985.146973 976.873230 49.821072 
1983.883545 973.889221 50.481571 
1984.739990 974.482178 51.219070 
1984.687012 973.424194 50.676071 
1984.066528 973.796204 50.767570 
1984.469971 975.697205 50.388069 
1984.224487 973.675171 50.017071 
1984.281006 973.647217 50.829071 
1986.128052 975.504211 50.909069 
1984.317993 975.093201 50.793072 
1984.718018 976.117188 50.368069 
1983.937500 973.859192 50.708569 
1984.169556 973.665222 50.538570 
1985.296021 976.925171 50.362068 
1984.702026 976.318176 50.753071 
1983.929565 974.698730 50.214069 
1984.683960 973.971191 51.176071 
1984.154541 973.753174 50.793571 
1984.682007 975.982178 50.003071 
1983.864502 974.590698 50.571571 
1984.365967 975.428223 50.683071 
1985.521973 977.186218 50.486069 
1984.227539 975.263672 50.534569 
1984.795044 973.626221 50.990070 
1984.338013 975.139221 49.962070 
1984.168579 974.668701 50.358070 
1984.227539 975.170715 50.699570 
1983.878540 974.463684 49.784069 
1983.913574 973.957214 50.813568 
1984.016479 974.864685 50.590569 
1984.035522 974.232727 51.121571 
1984.723022 975.889221 50.739071 
1984.510010 975.540222 49.971069 
1984.043579 974.929688 50.518570 
1983.796509 974.321716 50.193069 
1984.838013 975.513184 51.192070 
1984.113525 974.474670 51.124569 
1984.136475 974.844727 50.332069 
1984.190552 975.196716 50.272072 
1984.389038 974.176208 51.188068 
1984.604004 973.440186 50.595070 
1984.334961 973.600220 50.735069 
1984.744995 976.073181 50.660069 
1984.013550 974.391724 51.015572 
1985.261963 976.946228 49.954071 
1984.349976 975.457214 50.585072 
1984.305054 975.373230 50.611069 
1984.188477 975.204712 50.370071 
1983.736572 974.201721 50.703571 
1985.263062 974.804199 50.939072 
1984.071533 974.920715 50.653568 
1984.227539 974.789673 51.027569 
1984.607056 975.310181 51.182072 
1984.505005 973.431213 50.365070 
1984.489014 975.489197 50.812069 
1983.764526 974.060181 50.715569 
1984.632080 975.230225 50.767071 
1983.912476 974.635681 50.654572 
1983.995483 974.730713 50.102070 
1984.165527 975.043701 50.720570 
1984.228516 975.264709 50.138069 
1983.916504 973.855225 50.395069 
1984.109497 973.771179 50.017071 
1985.206055 976.110229 49.931068 
1983.704468 974.107727 50.488571 
1985.422974 977.052185 50.078072 
1984.976074 976.693176 50.010071 
1985.422974 975.851196 50.716068 
1984.811035 975.974182 49.966068 
1984.744995 976.133179 50.083069 
1984.250977 975.320190 50.344070 
1983.786499 973.949219 50.421070 
1984.713989 976.095215 50.270069 
1984.024536 973.773193 50.681568 
1984.857056 976.301208 50.558071 
1984.546997 975.228210 51.178070 
1984.584961 975.437195 51.031071 
1984.646973 974.863220 51.226070 
1985.317993 976.991211 49.850071 
1983.986572 973.969177 50.011070 
1984.477051 975.322205 49.952068 
1983.822510 974.586670 50.481571 
1983.671509 974.115723 50.388069 
1984.686035 975.194214 50.973068 
1985.203979 973.601196 49.772072 
1984.883057 976.365173 50.475071 
1985.838989 977.097229 49.969070 
1984.183472 973.833191 49.982071 
1984.921021 976.408203 50.081070 
1983.813477 974.577698 49.889069 
1983.799561 974.300720 50.729568 
1984.020508 973.774170 50.483570 
1984.604980 973.431213 50.366070 
1983.766479 974.472717 50.130070 
1984.692993 973.375183 50.084068 
1985.201050 976.873230 50.082069 
1983.653564 974.171692 50.239071 
1984.573975 975.094177 49.933071 
1984.446045 975.365173 50.876068 
1985.261963 974.004211 49.738071 
1984.729004 973.461182 50.774071 
1985.722046 975.017212 51.054070 
1984.163574 974.184692 51.167568 
1983.821533 973.959229 50.513569 
1984.676025 974.962219 51.226070 
1983.765503 974.192688 50.011070 
1985.546997 977.104187 49.944069 
1985.367065 977.066223 50.511070 
1985.516968 976.611206 49.932072 
1985.268066 976.812195 50.651070 
1984.931030 976.441223 50.175072 
1986.243042 975.664185 50.744068 
1983.981567 974.258728 51.040569 
1986.177979 975.546204 50.764069 
1983.999512 974.862671 50.448570 
1985.263062 976.933228 50.130070 
1985.369995 976.807190 50.384071 
1984.099487 974.049194 49.962070 
1984.490967 975.714172 50.286072 
1983.904541 974.742676 49.883072 
1985.029053 976.534180 50.606071 
1983.766479 973.915222 50.137070 
1984.007568 974.580688 50.821571 
1985.448975 977.123230 50.527069 
1984.173462 973.662170 50.637569 
1984.330078 975.065186 50.930069 
1984.697998 975.488220 51.169071 
1984.115479 974.902710 50.742569 
1984.904053 976.027222 50.973068 
1984.917969 975.258179 51.220070 
1984.227539 974.809692 50.254070 
1984.139526 973.654175 50.080070 
1984.282959 975.380188 50.495071 
1983.659546 974.113708 50.157070 
1983.707520 974.069214 50.079071 
1984.572021 975.728210 50.726070 
1985.389038 977.138184 50.204071 
1985.254028 974.681213 50.930069 
1984.520020 975.403198 50.962070 
1984.836060 976.239197 50.741070 
1984.386963 975.234192 50.794071 
1983.752563 974.454712 50.442070 
1985.427002 977.090210 50.313068 
1985.534058 974.694214 51.031071 
1984.456055 973.477173 50.068069 
1984.804077 976.230225 50.197071 
1984.635010 975.931213 50.073071 
1984.566040 975.848206 50.564072 
1983.969482 974.751709 50.333069 
1984.344971 974.857178 51.164070 
1985.123047 973.663208 49.759071 
1984.805054 976.238220 50.500069 
1984.744995 974.217224 51.201069 
1984.994019 976.466187 50.538071 
1983.875488 974.479675 50.020069 
1985.321045 974.674194 51.004070 
1985.250977 976.912170 50.252071 
1983.879517 974.357727 49.844070 
1984.695068 975.170227 50.842072 
1985.010986 976.655212 50.175072 
1985.629028 976.612183 50.115070 
1985.284058 976.758179 50.385071 
1983.999512 974.865723 49.936069 
1984.107544 973.715210 50.478569 
1984.190552 973.551208 50.170071 
1983.904541 974.692688 50.551571 
1984.482056 975.613220 50.678070 
1984.403076 975.572205 50.179070 
1983.880493 973.767212 50.302071 
1984.427979 975.038208 49.946072 
1985.567993 977.119202 50.601070 
1983.913574 974.644714 49.905071 
1983.956543 974.400696 49.797070 
1984.333984 975.465210 50.476070 
1983.703491 974.381714 50.369068 
1984.146484 975.142700 50.436069 
1983.888550 973.989197 50.021069 
1985.687988 974.915222 51.058071 
1984.389038 973.635193 50.827068 
1985.494019 976.728210 50.369068 
1983.996460 973.707214 50.126068 
1983.788574 974.444702 50.552570 
1985.134033 976.742188 50.558071 
1985.067993 976.812195 49.871071 
1985.438965 977.171204 50.389069 
1984.961060 976.339172 50.710072 
1984.395996 975.451172 49.985069 
1984.089478 975.034729 50.352070 
1985.433960 977.052185 50.596069 
1985.321045 976.894226 50.639069 
1984.630005 973.537170 50.828072 
1985.073975 976.419189 50.795071 
1984.265015 975.031189 50.857071 
1984.012573 974.913696 50.251068 
1984.815063 974.330200 51.210072 
1984.974976 976.369202 49.906071 
1984.744019 973.392212 50.600071 
1984.111572 975.008728 50.003071 
1984.286987 973.507202 50.370071 
1984.053467 974.578674 50.909569 
1984.925049 976.352173 49.991070 
1984.567993 973.647217 50.933071 
1985.721069 974.789185 50.717072 
1984.006470 974.611694 50.380070 
1984.226563 973.539185 50.267071 
1983.701538 974.291687 50.053070 
1984.087524 973.722229 50.592571 
1984.817017 975.088196 51.015072 
1984.911011 976.065186 49.959068 
1983.713501 974.344727 50.253071 
1984.399048 975.572205 50.300072 
1984.369019 973.551208 50.655071 
1984.154541 974.581726 51.119572 
1985.036987 976.437195 49.860069 
1985.459961 976.596191 50.016071 
1985.987061 976.008179 50.899071 
1983.881470 973.883179 50.599571 
1985.076050 976.714172 50.483070 
1984.161499 974.810730 50.912571 
1984.692017 973.413208 50.478069 
1984.874023 974.546204 51.222069 
1985.380981 977.030212 49.923069 
1984.398071 973.557190 50.029072 
1986.274048 975.676208 50.910069 
1984.691040 975.246216 51.213070 
1983.877563 974.389709 50.320068 
1983.716553 973.950195 50.255070 
1984.338013 974.678223 51.204071 
1984.974976 976.539185 50.367069 
1984.734985 975.555176 51.106071 
1984.416992 975.614197 50.425072 
1983.662476 974.229675 50.150070 
1984.054565 974.018188 50.981571 
1984.057495 974.366699 51.108570 
1984.664063 976.027222 50.382069 
1985.494019 977.119202 50.031071 
1983.939575 974.785706 50.435070 
1983.725464 974.244690 50.582569 
1984.132568 974.462708 50.372070 
1985.615967 974.619202 51.024071 
1985.300049 977.060181 50.424068 
1984.532959 975.264221 50.972069 
1984.417969 973.445190 50.308071 
1984.577026 975.222229 51.079071 
1984.038574 974.947693 50.367069 
1984.140503 973.595215 50.255070 
1984.581055 973.952209 51.171070 
1985.671997 974.604187 50.889069 
1985.145020 976.660217 49.821072 
1984.623047 974.473206 51.216068 
1984.220459 975.057678 49.972069 
1985.054077 976.478210 49.966068 
1984.083496 973.719177 50.383072 
1984.664063 976.008179 50.269070 
1984.807983 974.868225 51.229069 
1984.115479 973.942200 49.965069 
1984.427979 973.429199 50.211071 
1985.426025 974.660217 51.002071 
1984.106567 974.756714 50.834572 
1984.618042 975.145203 51.215069 
1984.630981 975.952209 50.173069 
1985.120972 976.809204 49.982071 
1985.080078 976.790222 50.203072 
1985.037964 976.180176 50.829071 
1985.014038 976.757202 50.133072 
1983.849487 974.285706 50.820572 
1983.808472 974.290710 50.020069 
1984.333008 973.482178 50.250069 
1984.273071 975.347229 50.174068 
1984.296021 973.852173 49.946072 
1985.471069 976.655212 50.303070 
1985.359009 976.979187 50.597069 
1984.525024 975.438171 49.962070 
1983.997559 974.867676 50.086071 
1983.890503 974.083679 50.894569 
1984.261963 975.261230 50.655071 
1983.752563 974.341675 50.586571 
1985.092041 973.740173 49.869068 
1984.640991 975.840210 50.712070 
1985.287964 976.263184 49.931068 
1984.385986 973.541199 50.534069 
1983.883545 973.779175 50.185070 
1984.951050 975.484192 51.198071 
1984.048462 974.642700 50.205070 
1984.494019 974.005188 51.174068 
1983.876465 974.481689 50.138069 
1984.627075 973.350220 50.198071 
1984.925049 976.447205 50.281071 
1983.977539 974.757690 50.654572 
1985.703003 974.805176 50.818069 
1984.905029 973.791199 49.883072 
1984.399048 974.935181 51.121071 
1984.073486 975.006714 50.248070 
1985.092041 976.800171 50.302071 
1984.662964 973.777222 51.085072 
1985.180054 976.695190 50.651070 
1984.172485 975.151672 50.045071 
1984.761963 973.702209 51.052071 
1984.458984 973.668213 50.897072 
1983.953491 974.680725 50.432072 
1984.311035 975.405212 50.258072 
1984.562012 975.844177 50.302071 
1984.826050 975.094177 50.829071 
1984.765991 976.185181 50.279072 
1984.023560 974.835693 50.355068 
1985.114990 976.813171 50.107071 
1984.734009 976.067200 50.006069 
1984.988037 976.039185 50.916069 
1984.226563 973.665222 50.741570 
1985.494995 977.007202 50.368069 
1984.111572 973.600220 50.352070 
1983.936523 974.375671 50.915569 
1985.185059 976.883179 49.971069 
1984.117554 974.602722 51.013569 
1985.526978 977.261230 50.281071 
1984.354980 974.581177 51.206070 
1985.195068 976.216187 50.771069 
1983.705566 974.147705 50.585571 
1986.389038 975.578186 50.982071 
1985.567017 977.072205 50.093071 
1984.709961 976.095215 50.466068 
1985.377075 974.666199 50.773071 
1983.946533 973.726196 50.239071 
1985.370972 977.152222 50.085072 
1984.296997 974.299194 51.190071 
1984.863037 976.342224 50.127071 
1984.800049 976.199219 50.593071 
1984.333008 973.477173 50.144070 
1985.132080 976.581177 49.993069 
1985.514038 975.496216 51.040070 
1983.937500 974.553711 50.200069 
1985.270996 976.940186 50.457069 
1983.764526 973.879211 50.304070 
1985.296021 974.634216 50.826069 
1984.123535 974.098694 51.140572 
1984.179565 975.177673 50.142071 
1984.056519 974.114685 51.058571 
1985.119019 976.128174 50.766071 
1983.957520 974.799683 50.021069 
1984.342041 975.451172 50.078072 
1984.346069 974.409180 51.199070 
1986.072021 975.448181 51.014069 
1985.311035 976.019226 50.711071 
1985.322021 975.408203 51.070068 
1984.582031 975.866211 50.208069 
1984.994995 974.854187 51.229069 
1983.893555 974.406677 50.808571 
1985.263062 975.728210 50.757069 
1984.457031 975.611206 50.015072 
1984.843994 975.051208 51.228069 
1983.925537 974.235718 50.961571 
1984.825073 973.417175 49.986069 
1984.802979 975.645203 51.169071 
1984.638062 973.340210 50.300072 
1984.346069 975.325195 50.720070 
1984.261963 974.203186 49.967072 
1984.977051 976.101196 51.003071 
1984.505005 973.480225 50.608070 
1985.321045 976.578186 50.058071 
1984.526978 975.776184 50.189072 
1984.664063 975.138184 49.927071 
1984.515015 973.383179 50.250069 
1985.672974 977.328186 50.185070 
1983.977539 973.800171 50.580570 
1984.750000 975.327209 51.209068 
1983.825562 974.171692 50.817570 
1984.175537 975.177673 50.523571 
1984.171509 974.015198 51.049568 
1984.612061 975.930176 50.322071 
1985.207031 974.760193 50.864071 
1985.050049 976.575195 50.075069 
1984.920044 976.125183 50.725071 
1984.732056 975.989197 50.712070 
1984.479980 973.495178 50.514069 
1984.483032 975.036194 51.107071 
1984.561035 973.487183 50.011070 
1985.448975 975.570190 51.053070 
1984.898071 975.664185 51.057072 
1984.160522 973.664185 50.413071 
1984.848999 974.740173 51.228069 
1984.017578 974.701721 49.966068 
1984.863037 976.336182 50.228069 
1985.205078 976.879211 50.335072 
1985.155029 976.844177 50.491070 
1985.107056 973.759216 49.735069 
1984.546997 974.407227 51.211071 
1985.099976 973.589172 49.824070 
1983.750488 974.027222 50.524570 
1984.766968 975.154175 51.223068 
1984.296997 975.197205 50.773071 
1984.504028 973.568176 49.994068 
1985.122070 975.985229 49.932072 
1983.822510 974.577698 50.021069 
1984.198486 973.932190 51.000568 
1984.577026 973.455200 50.478069 
1984.302002 975.403198 50.361069 
1984.348999 973.768188 49.953072 
1985.260986 974.050171 49.843071 
1985.485962 976.923218 50.423069 
1985.530029 976.601196 50.089069 
1986.129028 975.906189 50.752071 
1983.805542 974.407715 50.681568 
1985.417969 975.964172 50.706070 
1984.828979 973.487183 50.832069 
1985.347046 976.980225 50.294071 
1984.169556 974.877686 49.967072 
1983.830566 974.584717 50.141071 
1985.139038 976.598206 50.707069 
1984.458984 974.098206 51.183071 
1984.342041 973.719177 50.884071 
1983.884521 973.832214 50.096069 
1983.709473 974.264709 50.480572 
1985.343994 974.071228 49.743069 
1983.685547 974.169678 50.064072 
1984.217529 974.982727 50.784569 
1983.905518 974.723694 49.986069 
1984.352051 975.486206 50.344070 
1984.120483 973.880188 50.904572 
1984.140503 975.124695 50.335072 
1984.592041 975.854187 50.029072 
1985.124023 973.847229 49.778069 
1985.666016 977.257202 50.404072 
1985.666016 977.121216 50.585072 
1984.811035 973.394226 50.688068 
1984.750977 976.148193 50.185070 
1984.142578 975.089722 50.586571 
1984.540039 973.525208 50.789070 
1984.932983 974.974182 51.230068 
1984.421021 975.618225 50.524071 
1984.395996 974.322205 51.199070 
1985.360962 976.640198 50.327068 
1984.234497 975.280701 50.245071 
1985.492065 977.099182 50.161072 
1983.919556 973.894226 50.027069 
1984.208496 974.760681 50.378071 
1985.020996 976.592224 50.485069 
1984.268066 974.531189 51.194069 
1983.967529 974.809692 50.166069 
1984.596069 975.596191 49.964069 
1984.461060 974.482178 51.211071 
1984.575073 974.559204 51.218071 
1984.494019 973.508179 50.702068 
1984.747070 975.110229 50.768070 
1985.318970 977.102173 50.332069 
1984.921997 976.386230 50.563068 
1984.291016 975.366211 50.074070 
1984.286011 974.200195 51.182072 
1984.925049 975.153198 51.226070 
1985.226074 976.928223 49.841068 
1986.083008 975.906189 50.928070 
1985.554077 977.271179 50.148071 
1984.841064 973.368225 50.570068 
1984.414063 973.738220 50.951069 
1984.281982 974.048218 51.165070 
1985.031982 973.578186 49.899071 
1983.786499 974.441711 49.823071 
1984.292969 973.953186 51.140072 
1985.002075 976.752197 49.931068 
1985.385010 975.667175 50.999069 
1984.057495 973.666199 50.301071 
1984.122559 975.071716 50.084068 
1984.973999 976.184204 50.948071 
1985.370972 976.709229 50.399071 
1984.056519 974.820679 50.262070 
1984.868042 976.353210 50.368069 
1984.770020 973.892212 51.165070 
1984.826050 974.634216 51.225071 
1984.425049 975.388184 50.781071 
1984.952026 973.440186 49.968071 
1984.836060 975.376221 51.209068 
1985.575073 976.223206 50.761070 
1984.406006 975.533203 50.081070 
1984.289063 973.593201 50.535069 
1984.630005 975.969177 50.463070 
1983.967529 974.030212 50.929569 
1983.990479 974.416687 50.344070 
1984.572021 975.876221 50.396069 
1984.256470 973.608215 50.392071 
1984.644043 974.246216 51.202068 
1984.411987 974.795227 51.209068 
1985.619019 977.225220 50.497070 
1985.067017 976.714172 49.847069 
1985.330078 976.959229 50.198071 
1984.339966 975.335205 49.981071 
1984.566040 974.657227 51.221069 
1983.712524 973.950195 50.354069 
1985.205078 976.671204 50.348068 
1984.567993 974.069214 51.185070 
1984.804077 976.136230 49.980068 
1984.440063 975.669189 50.607071 
1984.582031 974.168213 51.195068 
1984.911011 975.651184 51.171070 
1985.087036 976.624207 49.892071 
1983.863525 973.939209 50.728569 
1984.299072 973.794189 50.938068 
1984.396973 973.527222 50.374069 
1984.020508 973.877197 50.001068 
1984.967041 976.240173 50.864071 
1984.457031 973.667175 49.974072 
1984.957031 975.941223 50.965069 
1984.810059 975.057190 49.908070 
1983.842529 974.501709 50.410069 
1984.748047 976.122192 50.555069 
1984.885986 975.761230 51.033070 
1984.802002 976.253174 50.344070 
1984.516968 973.396179 50.132069 
1985.441040 977.033203 50.216068 
1985.660034 974.801208 50.911072 
1984.562012 975.625183 50.757069 
1984.525024 975.146179 51.119068 
1983.763550 974.487671 49.970070 
1984.686035 976.043213 50.151070 
1984.802979 976.215210 50.072071 
1984.218506 973.779175 50.871571 
1984.514038 975.690186 49.998070 
1983.739502 974.362671 50.484570 
1984.712036 976.259216 50.833069 
1984.745972 975.068176 50.881069 
1984.367065 973.826172 51.006069 
1984.701050 973.402222 50.378071 
1984.083496 975.022705 50.485569 
1984.431030 973.563171 50.767071 
1984.549072 975.500183 50.900070 
1984.852051 976.301208 50.037071 
1985.089966 976.651184 50.567070 
1984.593018 973.411194 50.071072 
1984.666016 974.659180 51.224072 
1984.667969 974.088196 51.189072 
1984.508057 975.752197 50.609070 
1983.703491 973.997192 50.146069 
1985.551025 975.781189 50.743069 
1984.687012 975.410217 51.101070 
1984.531982 975.780212 50.070068 
1985.349976 973.960205 49.734070 
1984.952026 975.376221 51.211071 
1983.729492 974.422729 49.903069 
1983.973511 973.696228 50.343071 
1983.779541 974.469727 50.306068 
1984.514038 974.816223 51.218071 
1984.773071 974.123230 51.194069 
1983.825562 973.827209 50.363071 
1983.719482 974.368713 50.130070 
1985.117065 976.043213 50.715069 
1985.179077 976.017212 50.794071 
1984.567993 973.815186 51.093071 
1984.724976 973.324219 50.200069 
1984.445068 974.699219 51.214069 
1984.001465 974.680725 50.738571 
1983.762573 974.340698 49.948071 
1985.218994 976.854187 50.571072 
1985.239990 974.743225 50.772072 
1985.856079 975.214172 51.014069 
1984.531006 975.797180 50.485069 
1983.826538 974.056213 50.795570 
1984.043579 974.947693 50.133072 
1985.497070 976.806213 50.441071 
1984.092529 975.003723 50.604568 
1984.281982 974.778198 51.114071 
1983.793579 974.085693 50.024071 
1984.228516 974.427673 51.187569 
1984.461060 974.900208 51.212070 
1984.153564 974.858704 50.823570 
1985.008057 976.335205 50.821072 
1985.188965 975.770203 50.808071 
1984.338989 973.569214 50.445068 
1984.123535 975.083679 50.185070 
1985.165039 976.740173 50.448071 
1984.221558 974.676697 51.111568 
1985.726074 977.094177 50.012070 
1985.002075 973.677185 49.734070 
1985.179077 976.606201 50.252071 
1984.048462 974.670715 50.831570 
1983.711548 974.405701 50.030071 
1984.586060 975.034180 51.219070 
1984.339966 973.649170 50.004070 
1984.540039 974.286194 51.203072 
1983.890503 974.681702 50.125069 
1986.416016 975.271179 50.828072 
1984.229492 975.284729 50.435070 
1983.671509 974.036194 50.326069 
1984.587036 975.374207 51.108070 
1985.182983 973.924194 49.749069 
1985.834961 976.613220 50.020069 
1985.010986 976.232178 49.961071 
1984.065552 974.877686 50.012070 
1986.185059 975.569214 50.860069 
1984.927979 976.443176 50.428070 
1984.357056 974.136230 49.953072 
1984.766968 975.831177 49.959068 
1984.516968 973.722229 50.980068 
1985.296021 973.643188 49.733070 
1984.115479 973.716187 50.701569 
1984.764038 976.189209 50.417068 
1985.612061 974.798218 51.007069 
1985.416016 977.007202 49.830070 
1983.734497 974.053223 50.619572 
1985.400024 976.583191 50.158070 
1983.741577 974.437683 50.219070 
1983.724487 974.035217 50.422070 
1984.917969 975.852173 51.002071 
1985.036987 976.609192 49.978069 
1986.070068 977.126221 49.950069 
1985.227051 976.639221 50.733070 
1984.687012 973.662170 50.992069 
1984.311035 973.547180 50.075069 
1985.448975 973.972229 49.741070 
1984.729980 973.527222 50.859070 
1984.807007 973.334229 50.367069 
1984.457031 974.583191 51.214069 
1985.546997 977.212219 49.998070 
1984.927979 975.944214 51.080070 
1985.317993 974.811218 50.855068 
1985.259033 976.140198 50.785069 
1983.802490 973.972229 50.657570 
1984.487061 974.201172 51.195068 
1985.154053 976.573181 50.105068 
1984.455078 975.000183 51.203072 
1984.463989 975.678223 50.136070 
1985.257080 976.729187 50.704071 
1984.655029 973.596191 50.912071 
1985.187988 973.791199 49.846069 
1984.558960 974.918213 51.220070 
1984.682983 973.606201 49.946072 
1984.982056 976.208191 50.750069 
1983.953491 974.590698 50.737572 
1984.804077 975.620178 51.073071 
1985.002075 975.861206 50.729069 
1984.110474 974.899719 50.213070 
1985.321045 976.220215 50.770069 
1984.724976 973.431213 50.009071 
1984.967041 976.444214 49.999069 
1984.661011 973.507202 49.985069 
1984.832031 976.351196 50.771069 
1985.239014 975.933228 50.818069 
1983.961548 974.796692 50.537571 
1983.789551 973.982178 50.064072 
1983.979492 973.788208 50.068069 
1983.832520 974.495728 50.625568 
1984.737061 974.588196 51.223068 
1984.915039 976.146179 50.844070 
1984.832031 976.074219 50.727070 
1986.197998 975.822205 50.750069 
1985.029053 976.108215 50.722069 
1985.432007 977.193176 50.292068 
1984.500000 975.092224 51.200069 
1984.654053 973.869202 51.160069 
1984.869019 973.696228 51.076069 
1983.904541 974.537720 49.933071 
1984.508057 975.298218 51.061069 
1984.563965 975.196228 49.928070 
1986.385010 975.235229 50.737068 
1984.833008 976.162170 50.678070 
1984.979980 976.433228 50.631069 
1984.820068 975.248230 51.219070 
1985.932007 976.615173 49.987068 
1985.056030 976.590210 50.307072 
1985.352051 974.627197 50.916069 
1983.670532 974.046204 50.228069 
1984.483032 975.709229 50.518070 
1984.785034 975.466187 51.088070 
1985.552002 976.864197 50.376068 
1983.807495 973.851196 50.214069 
1984.489014 973.799194 51.036072 
1985.112061 976.511230 50.755070 
1984.448975 975.640198 50.236069 
1984.950073 974.690186 51.228069 
1985.636963 974.737183 50.777069 
1985.476074 976.617188 50.211071 
1984.306030 974.974182 50.988071 
1984.106567 973.609192 50.163071 
1984.213501 973.852173 50.943569 
1984.359009 973.913208 51.069069 
1985.046997 976.781189 50.041069 
