755.476 1384.538 367.572
549.065 -276.747 779.071
769.33 1020.698 370.57
731.327 -880.521 366.069
812.914 216.203 278.071
803.74 -317.956 252.07
813.053 582.905 -317.929
570.015 -119.187 739.07
770.259 -664.018 307.071
812.104 -210.371 258.071
797.614 1727.566 -11.93
675.203 1379.775 520.572
844.51 -34.568 34.068
827.291 289.202 -108.93
768.221 259.678 374.068
840.032 63.277 46.069
669.646 662.349 451.072
835.208 -424.463 26.069
798.89 -289.535 -338.929
811.13 1324.274 229.571
795.611 348.224 341.071
673.478 -1752.247 144.069
833.217 559.943 192.569
786.739 640.446 357.57
816.507 1011.006 248.569
484.036 1548.776 779.571
716.891 -229.539 397.071
825.539 941.162 176.57
735.522 1591.216 -148.931
537.455 1300.246 782.569
831.771 636.422 -69.928
789.842 -399.84 318.069
582.563 1422.067 673.572
823.955 331.113 243.072
820.866 426.306 269.069
837.566 630.535 28.071
727.432 1725.103 361.571
796.844 934.956 311.568
596.218 970.439 685.569
527.801 329.907 840.072
719.536 233.895 470.069
792.074 1261.331 312.572
776.936 781.45 378.57
832.89 558.557 -203.931
708.238 1822.557 146.571
819.841 -451.8 -258.931
841.178 499.278 2.07
827.711 -403.419 -71.931
806.808 -653.348 216.071
538.828 430.925 836.07
610.442 230.957 689.071
845.482 1348.759 139.571
740.779 1832.111 46.069
816.273 -721.743 133.071
804.91 -777.991 -260.93
722.381 1607.873 387.568
784.304 1792.613 -102.929
694.736 362.788 534.068
697.86 1718.461 -330.93
747.634 -1570.875 169.07
706.356 -1301.38 309.07
812.752 -811.591 -166.928
543.763 1553.236 698.569
830.194 1021.234 106.57
830.332 38.085 -55.928
774.34 -941.106 264.071
682.226 1261.41 479.571
705.202 -1661.199 185.069
645.173 680.568 588.069
538.062 130.25 827.071
749.783 928.576 400.569
629.114 -439.567 631.068
843.48 431.328 153.071
750.132 1839.838 -184.93
686.338 1854.384 -262.929
767.156 -14.599 384.07
764.586 -1644.181 -137.929
649.684 292.87 620.07
680.412 505.762 452.071
840.079 1498.011 100.07
707.721 -1621.616 -28.932
817.197 -565.385 -144.929
814.108 -221.9 -268.929
832.334 -115.528 222.072
528.271 853.261 822.07
820.349 -572.797 158.069
770.684 -864.705 196.071
827.45 1215.929 209.571
787.573 129.967 336.07
835.464 204.977 -162.93
841.802 332.184 134.07
846.077 1585.765 27.068
842.927 705.236 94.069
803.887 1488.675 210.57
787.429 -1173.736 216.071
737.858 -1697.741 47.069
735.72 -738.227 368.072
781.079 313.335 -356.931
838.31 827.244 10.07
682.683 -1592.165 254.069
701.49 -1398.911 297.069
684.521 742.542 515.071
844.395 970.514 -90.932
806.176 838.715 -338.929
641.469 1240.205 567.569
773.407 -731.481 -350.93
802.755 1664.708 -288.93
818.915 1612.792 -88.929
838.953 206.991 -41.928
555.463 1187.025 777.572
823.635 -1120.482 141.07
663.939 985.223 570.571
699.324 1491.806 -21.932
823.674 -918.402 25.069
539.508 53.77 764.071
844.409 161.653 83.072
805.578 1737.943 -191.93
531.993 1421.767 766.57
836.952 -319.572 40.069
843.619 1117.856 93.07
758.536 1693.445 240.569
802.651 -1532.134 82.068
568.99 406.758 630.069
509.831 421.091 737.071
838.876 928.072 25.069
827.43 -303.081 -72.93
684.503 1059.468 492.572
828.095 -238.068 -168.931
589.621 -638.985 487.071
671.637 1595.913 478.572
709.659 1612.087 -321.931
835.564 464.815 -167.932
711.093 -1491.471 255.069
802.184 544.846 313.071
783.56 1595.904 244.571
763.426 -146.079 370.07
820.923 -813.781 -60.929
796.733 1123.137 312.572
520.441 758.67 779.071
838.152 859.502 -93.93
724.074 -1156.045 309.07
824.896 684.465 -296.929
831.678 395.618 -83.928
833.808 -110.025 -39.929
827.659 -507.333 -62.928
796.366 -389.167 -335.931
562.363 -491.92 574.069
641.244 1474.483 573.569
597.992 1187.335 671.569
706.649 -1819.712 -60.929
727.276 1787.386 243.571
831.199 -401.405 124.068
787.25 -1647.305 -256.928
822.136 -691.859 -214.929
805.183 -536.519 251.071
767.814 -1413.689 115.069
831.765 658.408 -199.929
827.806 340.313 -263.928
827.488 -139.117 -133.931
693.959 1469.115 466.571
808.238 144.224 -326.928
580.782 1601.179 619.571
525.637 -58.192 827.071
761.329 447.398 378.07
830.152 -33.625 -152.928
635.35 1706.614 475.57
835.253 660.422 181.571
833.464 -209.527 -19.929
664.246 -532.4 383.071
759.055 -320.638 370.07
498.215 629.199 765.071
819.115 -686.627 -113.931
820.24 -1272.559 149.07
739.832 582.776 431.071
838.494 401.879 19.069
770.699 1512.222 339.568
711.103 -1051.546 365.069
782.394 1684.104 138.572
755.599 1778.366 -277.928
701.414 808.254 442.569
836.654 304.967 2.07
839.104 723.819 -6.928
812.807 -133.709 -312.928
822.167 -467.793 -156.93
819.821 753.069 244.571
842.934 156.15 182.071
835.706 541.717 -96.929
810.339 -987.345 143.069
807.261 -1577.961 -9.931
793.078 -759.449 221.068
829.514 439.403 -267.93
688.155 -1841.878 -193.929
828.155 778.672 -257.932
823.295 -703.876 26.069
724.425 353.358 439.071
813.426 237.289 -260.93
837.424 -252.275 121.07
841.162 -142.781 54.069
608.934 -1834.547 155.07
771.619 441.78 -360.929
785.664 1412.328 68.069
811.704 -443.811 213.069
511.765 -200.178 691.07
830.469 -584.222 2.07
724.311 79.629 415.069
516.841 512.953 777.068
825.919 -344.407 -190.93
810.641 -551.833 -269.929
798.359 47.322 -343.93
805.369 1584.252 142.57
837.479 840.648 143.569
673.017 194.352 558.07
811.142 -650.845 -304.929
780.09 -1072.891 225.07
508.575 203.295 759.07
827.832 -39.615 -271.932
737.53 1177.827 396.571
769.85 -1313.211 229.072
837.161 -53.822 143.069
834.542 925.569 -208.928
820.165 852.571 262.568
543.331 953.155 772.071
694.798 947.643 481.57
833.291 767.824 -156.93
759.569 -1187.494 106.071
544.91 1071.269 769.568
691.824 1162.998 489.57
842.055 540.731 93.07
701.015 1900.985 -15.931
577.151 284.469 766.07
816.371 -811.757 86.07
831.364 -509.845 75.068
529.538 -294.928 660.071
566.89 -379.643 738.07
504.418 674.362 861.072
835.721 82.707 -205.93
652.046 -635.293 408.069
734.063 1279.78 395.572
512.174 -37.069 731.071
783.061 -832.187 -342.931
830.082 1097.355 195.571
791.342 1422.512 283.568
679.078 -548.08 502.07
714.985 -444.257 385.07
754.87 -1713.29 -49.932
511.535 572.191 858.069
607.555 389.767 719.069
758.115 -520.913 336.07
766.362 -829.142 289.069
706.866 1892.805 -113.931
834.732 46.333 176.07
829.711 123.144 -105.931
620.497 771.404 646.071